# .PCD v0.7 - Point Cloud Data file format
VERSION 0.7
FIELDS x y z intensity
SIZE 4 4 4 4
TYPE F F F F
COUNT 1 1 1 1
WIDTH 1418
HEIGHT 1
VIEWPOINT 0 0 0 1 0 0 0
POINTS 1418
DATA ascii
16.253527 -10.47504 0.22580771 4
18.90896 -7.8888173 0.10166994 7
17.643229 -8.0970573 0.13308047 5
16.600962 -8.3343344 0.15149473 4
14.545289 -7.2707777 0.089026555 9
12.845756 -6.3915963 0.057030611 8
11.620864 -5.7577968 0.011874822 7
10.568475 -5.2135868 0.018602584 7
9.7020063 -4.7650456 -0.037689503 7
9.0066557 -4.4052501 -0.064166024 20
8.4003448 -4.0915322 -0.084966771 8
7.9140797 -3.8397858 -0.11270627 7
5.9359493 -2.8164077 -0.16379817 9
37.283798 -19.307241 13.442799 8
37.35545 -19.319298 10.497819 26
37.36388 -19.304514 8.2662897 31
35.710163 -18.421307 5.8600888 9
34.179951 -17.610115 4.3375564 32
34.060028 -17.541721 3.6570721 6
30.633987 -17.176807 3.3941491 21
31.231466 -19.029415 3.3390012 26
28.97908 -19.102953 3.1526003 10
34.959114 -14.926161 3.2170031 30
34.636097 -16.28504 3.1066868 39
33.369656 -17.175486 2.9615591 13
37.630333 -21.152237 2.9923682 8
31.673628 -19.296307 2.7107997 24
28.867239 -19.02141 2.5419989 14
34.63615 -14.781632 2.5448432 23
37.64616 -17.713409 2.4865463 1
37.213955 -19.175356 2.3571768 35
32.308235 -18.117777 2.1807618 15
31.429258 -19.138826 2.0610089 6
29.022093 -19.118572 1.9362222 7
30.597593 -13.0309 1.8838276 0
37.500919 -17.638472 1.7580675 38
31.650211 -16.267628 1.6597906 15
37.547123 -21.090864 1.4780289 35
36.554871 -22.298801 1.3437189 6
29.064972 -19.140757 1.3272997 7
26.072039 -11.070735 1.3868388 0
19.578064 -9.1016073 1.431736 0
19.308075 -9.8277855 1.3619938 1
19.218876 -10.665018 1.2842675 1
26.883612 -16.318844 0.93199843 34
26.556805 -17.456564 0.81808591 26
20.487331 -8.6543493 1.1042665 1
19.143511 -8.8918571 1.0754424 11
19.171076 -9.7531643 0.99267024 0
19.090508 -10.588542 0.90938103 0
26.640299 -16.163143 0.39756489 30
19.328848 -8.1511908 0.78433371 0
19.233528 -8.9319353 0.70412391 0
19.166552 -9.747612 0.62028396 0
19.084789 -10.581888 0.5307799 11
21.327745 -12.879311 0.26064408 7
19.551495 -12.762228 0.28525135 5
19.393545 -8.1765928 0.41657838 14
19.389936 -9.0033989 0.32436708 1
19.955656 -10.155439 0.18010716 4
18.432053 -10.207695 0.21209662 8
17.363668 -10.429461 0.21385755 5
16.204062 -10.521131 0.22664711 4
18.808588 -7.9214592 0.10823572 7
17.568535 -8.1346312 0.13736372 5
16.561621 -8.3849869 0.15218525 4
14.506164 -7.3124361 0.09042526 8
12.816775 -6.4310079 0.057725053 7
11.590608 -5.7911191 0.013323022 7
10.55416 -5.2505407 0.017693002 7
9.6752844 -4.7917099 -0.035782058 7
8.9881868 -4.4331241 -0.063609406 12
8.3795176 -4.1154971 -0.083476551 9
7.887249 -3.8584802 -0.10924041 7
5.9197764 -2.8318827 -0.1614451 9
37.342705 -19.502792 13.481519 15
37.361 -19.486719 10.513877 25
37.370174 -19.472189 8.278059 32
35.734138 -18.590754 5.8691406 20
34.542545 -17.950964 4.3678465 28
32.949024 -17.106104 3.5998769 2
30.768404 -17.393423 3.4031549 10
30.887184 -18.963383 3.3246214 25
28.912689 -19.202389 3.1516244 12
35.14537 -15.150485 3.2255998 33
35.037098 -16.624218 3.1225629 14
33.327656 -17.299557 2.9612601 19
33.35302 -18.870333 2.8629141 0
31.786434 -19.517195 2.7147255 28
28.910538 -19.194237 2.5436618 11
35.852966 -15.454493 2.5695369 20
35.836212 -17.002827 2.4560895 0
37.168503 -19.314665 2.3564682 38
32.276485 -18.246696 2.1801417 10
31.362726 -19.246758 2.0600262 1
28.879368 -19.16666 1.9350405 171
37.46283 -16.152119 1.8887562 36
37.479244 -17.78664 1.7570349 38
30.998953 -16.06352 1.6627614 7
37.612541 -21.299677 1.4755076 32
32.440128 -19.911089 1.4004333 18
28.915541 -19.184511 1.3278687 9
26.015362 -11.151995 1.3865932 0
19.481737 -9.1370535 1.4327136 0
19.313038 -9.9139185 1.3604544 0
19.161169 -10.718431 1.2843567 0
26.857496 -16.429892 0.93008572 32
26.522692 -17.565321 0.81613308 23
19.977436 -8.5147495 1.1219348 0
19.101997 -8.951746 1.0754318 117
19.147978 -9.8239088 0.99167126 0
19.081623 -10.66931 0.9074173 0
26.584175 -16.254305 0.39673507 26
25.389477 -16.795967 0.32979476 13
19.333681 -8.2312756 0.78202343 0
19.224287 -9.0076799 0.70232505 0
19.143467 -9.8183184 0.61907405 0
19.075903 -10.6626 0.5282526 18
21.266167 -12.941408 0.26128453 4
19.470873 -12.804151 0.28760949 5
19.350702 -8.2361393 0.41726381 34
19.409195 -9.0934629 0.31980577 1
19.856979 -10.189919 0.185065 5
18.351774 -10.244489 0.21570204 7
17.314068 -10.479859 0.21464379 4
16.13463 -10.553647 0.2295471 4
18.737436 -7.9662285 0.11200831 6
17.53689 -8.1924524 0.13730054 5
16.51507 -8.4317589 0.1536229 4
14.459879 -7.3502116 0.092710778 9
12.78767 -6.4702911 0.058417898 7
11.570768 -5.8298125 0.013022802 7
10.522225 -5.278285 0.019978199 7
9.6589432 -4.8237233 -0.036030285 7
8.9765759 -4.4645619 -0.064623974 17
8.372468 -4.1466184 -0.085391931 8
7.881074 -3.8878696 -0.11127254 8
5.9203992 -2.8560798 -0.16533947 7
37.421093 -19.709866 13.526667 15
37.355461 -19.648891 10.527488 25
37.365284 -19.634573 8.2879944 31
35.493782 -18.620504 5.8481612 26
34.42374 -18.039921 4.3627548 29
32.917809 -17.234415 3.6005039 2
30.842871 -17.577166 3.4091427 6
31.061569 -19.220411 3.3352454 44
28.855871 -19.308338 3.1510954 5
35.187836 -15.313396 3.2285528 33
34.925365 -16.718636 3.1197188 29
33.260471 -17.410418 2.9601245 23
32.13475 -18.318422 2.8267069 13
30.871904 -19.094807 2.6905599 16
28.853752 -19.30015 2.5429211 9
35.865139 -15.606943 2.5700455 32
37.583698 -18.002169 2.4857187 6
37.147255 -19.467007 2.3560877 37
32.303097 -18.409647 2.180109 10
31.333086 -19.37785 2.0592809 21
28.816065 -19.267937 1.9340707 22
37.490875 -16.318213 1.8879707 35
31.499966 -15.047307 1.7725321 3
32.105713 -16.786598 1.6544219 7
37.635399 -21.485184 1.4734032 33
32.364117 -20.018259 1.399509 12
28.862097 -19.292627 1.3266412 11
25.984051 -11.244277 1.3858697 1
19.435781 -9.196352 1.4325596 0
19.268171 -9.9739761 1.360221 0
19.137941 -10.79157 1.2833774 0
26.912216 -16.591942 0.92529786 28
26.504673 -17.685278 0.81351042 21
19.787066 -8.511857 1.1275777 0
19.138742 -9.9020967 0.99001169 0
19.048178 -10.736152 0.90668988 0
26.564972 -16.368616 0.3938112 28
25.202248 -16.795256 0.3368676 17
19.341843 -8.3131008 0.77949965 0
19.211149 -9.0817251 0.70074415 0
19.144814 -9.9020653 0.61621773 0
19.066679 -10.743375 0.52572072 13
21.146914 -12.967192 0.26634955 7
19.406702 -12.856866 0.28859845 5
19.340548 -8.3099489 0.41543359 26
19.395739 -9.1681223 0.31786928 1
19.818218 -10.25557 0.18484114 5
18.268007 -10.27885 0.21962517 8
17.240675 -10.515221 0.21774136 5
16.075058 -10.592515 0.23141547 4
18.651604 -8.0041761 0.11717706 8
17.479948 -8.2380009 0.13977057 5
16.454311 -8.4708519 0.15655762 4
14.413502 -7.3877501 0.094995216 8
12.75844 -6.5094461 0.059109136 7
11.543797 -5.8647337 0.013885826 7
10.497201 -5.3095598 0.020983754 6
9.6424904 -4.8556786 -0.036279932 7
8.9544449 -4.4904709 -0.063284755 13
8.3514757 -4.1704354 -0.083903857 10
7.8644547 -3.911804 -0.11055721 9
5.9041123 -2.8714509 -0.1629878 8
37.464527 -19.899475 13.561062 15
37.369926 -19.822382 10.545959 25
37.373623 -19.804634 8.3003473 31
35.474625 -18.767246 5.8523932 22
34.353977 -18.154654 4.3612947 18
32.692348 -17.258987 3.5907075 5
30.764515 -17.673059 3.4073503 25
31.345951 -19.549421 3.3512309 39
28.867887 -19.461559 3.1537144 2
35.434078 -15.567812 3.2395675 27
34.605103 -16.710548 3.1092384 24
33.164692 -17.505924 2.9580314 15
31.342175 -18.003933 2.8034549 94
30.822407 -19.211514 2.6900392 7
28.842749 -19.437532 2.5432854 6
35.3176 -15.510917 2.5593023 26
37.686337 -18.212452 2.4875655 2
35.531342 -18.766508 2.3340831 3
32.353127 -18.587099 2.1803057 4
31.221756 -19.457647 2.0579982 26
28.831594 -19.423237 1.9333005 8
37.496258 -16.474939 1.8871541 39
31.814207 -15.334741 1.7707133 19
32.216663 -16.987446 1.6524471 25
37.301414 -21.463718 1.4749902 59
36.506695 -22.792847 1.3375727 10
28.801624 -19.396084 1.3255285 8
25.923153 -11.323474 1.385682 0
19.411182 -9.2659769 1.4319153 0
19.311253 -10.08098 1.3576388 0
19.142056 -10.880774 1.2815377 0
26.905272 -16.716116 0.92264867 30
26.472918 -17.796291 0.81140852 21
19.702871 -8.5548267 1.1292053 0
19.291311 -9.20436 1.0638776 0
19.150314 -9.9916401 0.98735911 0
19.035194 -10.814951 0.90489256 0
26.535133 -16.476585 0.39144742 29
24.932873 -16.737064 0.34902841 19
19.33139 -8.3869696 0.77801436 0
19.208473 -9.161046 0.69849062 0
19.142262 -9.9840574 0.61358887 0
19.060551 -10.826221 0.52293384 29
21.088459 -13.03067 0.26672408 6
19.309433 -12.886765 0.29232144 6
19.330086 -8.3837852 0.4135972 26
19.37122 -9.2375441 0.31680349 0
19.761623 -10.311676 0.18613648 4
18.215218 -10.330798 0.2206835 7
17.190817 -10.565095 0.21852246 4
16.005518 -10.624351 0.23431252 4
18.583921 -8.0497084 0.1205967 7
17.42646 -8.2849989 0.14187492 4
16.400484 -8.5133724 0.15873992 4
14.374028 -7.4287972 0.096388124 8
12.72207 -6.5447392 0.060823992 7
11.5167 -5.8995357 0.014746022 7
10.468577 -5.3388638 0.022626264 7
9.6189632 -4.8838716 -0.035095427 7
8.946064 -4.5236568 -0.065088458 10
8.3338423 -4.195991 -0.08326906 9
7.8511767 -3.9374983 -0.11076023 8
5.8911214 -2.8885245 -0.16188699 7
37.385166 -20.023504 13.55681 18
37.35265 -19.97942 10.557114 25
37.381245 -19.974989 8.3126955 31
35.297329 -18.828922 5.8386178 22
32.352222 -17.225826 4.2169704 10
32.758938 -17.439747 3.5966244 22
30.720329 -17.788868 3.4073212 4
31.048859 -19.510969 3.3391371 25
30.547056 -20.766283 3.2325006 17
35.387276 -15.693069 3.2390363 33
34.590046 -16.850863 3.1099432 24
32.189053 -17.126202 2.9263356 3
31.15205 -18.036644 2.7986202 4
31.932384 -20.067701 2.7213154 16
28.837732 -19.579611 2.5438044 0
36.536949 -16.204311 2.5840919 5
37.651691 -18.356401 2.4870994 1
37.134567 -19.789036 2.3557265 35
32.278168 -18.692184 2.1792438 15
31.150738 -19.562698 2.0569789 29
28.833233 -19.569788 1.9324898 3
37.515617 -16.638454 1.8863441 36
31.251572 -15.192707 1.7713578 15
37.163715 -19.798378 1.6188481 37
37.613029 -21.818956 1.4698402 34
37.65519 -23.700806 1.3185718 27
28.783598 -19.528862 1.3236059 10
25.989738 -11.4597 1.3831147 0
19.397106 -9.3408451 1.4310269 0
19.286959 -10.152341 1.3568351 0
19.197514 -11.000501 1.2780914 1
26.847219 -16.80822 0.92179209 28
26.397932 -17.8778 0.81103289 29
19.549332 -8.5662174 1.1334684 0
19.241592 -9.2611103 1.0641561 0
19.154472 -10.077588 0.98503238 0
19.018459 -10.891765 0.90327078 0
26.461067 -16.556643 0.39155418 24
24.703703 -16.704395 0.35876074 11
19.284224 -8.4445152 0.77861947 0
19.216234 -9.2457514 0.69556832 0
19.13587 -10.064254 0.61119258 0
19.050644 -10.90713 0.5203926 20
20.955753 -13.04674 0.27283257 5
19.212204 -12.916139 0.29604781 6
19.344845 -8.4690752 0.40980315 17
19.364357 -9.3157187 0.31427455 0
19.690847 -10.359941 0.18865253 5
18.117586 -10.356277 0.22587857 7
17.130743 -10.608324 0.22029603 4
15.95894 -10.671645 0.23480326 4
18.530704 -8.1013823 0.12261972 7
17.376442 -8.3334818 0.14361754 4
16.35709 -8.5612822 0.1597985 5
14.337956 -7.4715395 0.097336933 8
12.689114 -6.5817347 0.062025826 8
11.489511 -5.934216 0.015606281 7
10.439891 -5.3680301 0.024269141 6
9.5953703 -4.9119573 -0.033910763 7
8.9168434 -4.5456953 -0.062180873 10
8.3127022 -4.2196212 -0.08178284 9
7.8309674 -3.9594593 -0.10913042 7
5.8914905 -2.9127214 -0.16578478 10
37.356102 -20.174946 13.568652 15
37.362228 -20.151596 10.574756 26
37.374245 -20.138063 8.3226023 30
35.29826 -18.986719 5.845242 15
32.295868 -17.338999 4.2163377 15
31.785954 -17.055658 3.5465505 7
31.672684 -18.495358 3.4583952 24
30.977673 -19.615469 3.3379748 27
30.455164 -20.857489 3.2305412 21
34.080391 -15.246971 3.1886597 4
34.617367 -17.012661 3.1122169 29
32.073353 -17.206251 2.9235551 2
32.468929 -18.960854 2.8399944 28
31.630474 -20.028252 2.713917 28
29.892723 -20.459196 2.5699518 29
34.943485 -15.633273 2.5523145 4
37.670204 -18.527067 2.4875336 2
37.146538 -19.960848 2.3557963 38
31.851814 -18.589087 2.174643 32
31.281292 -19.797197 2.0572567 26
30.049553 -20.561144 1.9347963 29
37.483273 -16.779184 1.8854874 35
31.467382 -15.433701 1.7697952 37
32.010372 -17.160799 1.651258 5
37.554317 -21.958605 1.4685353 32
37.660206 -23.886585 1.3160809 23
28.84054 -19.71423 1.3202417 10
26.135828 -11.632833 1.3790407 1
19.375576 -9.4121618 1.4302968 0
19.237804 -10.210279 1.3566854 0
19.197306 -11.088161 1.2763486 2
26.862869 -16.947636 0.91829413 30
26.391651 -18.006886 0.80785894 32
19.432367 -8.5931311 1.1363474 0
19.220337 -9.3318644 1.0632181 0
19.140701 -10.154141 0.98352337 0
19.02549 -10.982832 0.90040171 0
26.42375 -16.660118 0.38956437 26
24.570225 -16.736395 0.36259422 8
19.269634 -8.5166569 0.77733886 0
19.187872 -9.3128376 0.69486415 0
19.125635 -10.142616 0.60902673 0
19.009472 -10.96981 0.52007943 2
20.903822 -13.113764 0.27268609 6
19.144506 -12.965466 0.29730833 6
19.326521 -8.5397587 0.4085198 6
19.357178 -9.3939543 0.31174123 0
19.605951 -10.400223 0.19238804 4
18.037157 -10.391342 0.22948316 7
17.070572 -10.65126 0.2220685 4
15.902397 -10.711927 0.23632473 5
18.451937 -8.1412811 0.12708774 7
17.326292 -8.381712 0.14535853 4
16.296059 -8.5994883 0.1627302 5
14.298262 -7.5122218 0.098728664 8
12.663022 -6.6223602 0.062199112 7
11.472651 -5.9744368 0.014716753 7
10.414593 -5.3989401 0.025271256 7
9.5751514 -4.9418106 -0.033445787 7
8.9048147 -4.5769258 -0.063200943 8
8.3052387 -4.2505989 -0.083703674 8
7.8141179 -3.9831789 -0.108418 7
5.8717017 -2.92611 -0.16218542 8
37.431046 -20.384102 13.613752 14
37.367622 -20.322189 10.591576 24
37.387337 -20.312761 8.3361454 31
35.361298 -19.179249 5.8590541 1
32.197132 -17.428932 4.212585 10
31.84227 -17.228365 3.5519052 60
31.577522 -18.585762 3.4558585 30
30.71492 -19.595856 3.3275228 27
30.438295 -21.001051 3.2320285 25
34.19099 -15.43909 3.1943369 20
33.983093 -16.842813 3.0901968 31
32.318508 -17.483833 2.9329498 38
32.214191 -18.959702 2.8332224 30
31.732031 -20.247751 2.7175946 23
29.995209 -20.683365 2.5731101 33
34.84552 -15.733538 2.5506148 29
37.616489 -18.66218 2.4867492 22
37.178799 -20.144526 2.3561409 30
31.90741 -18.770248 2.1748955 28
31.64563 -20.184984 2.0590265 26
29.971516 -20.659657 1.933732 32
37.483143 -16.934864 1.8846469 36
31.292236 -15.480743 1.7693431 42
37.218426 -20.159752 1.615514 39
29.567492 -17.36776 1.5510368 2
33.305664 -21.252325 1.3774546 1
29.97131 -20.652412 1.2963802 56
32.471577 -14.637731 1.2589439 5
19.596827 -9.6054296 1.4240407 0
19.991457 -10.708239 1.334995 0
19.237923 -11.200529 1.2733153 1
26.817436 -17.048273 0.91694677 32
26.325821 -18.094889 0.80707479 31
19.399069 -8.6575537 1.1360354 0
19.234541 -9.4205036 1.0607575 0
19.1126 -10.223033 0.98266882 0
19.076725 -11.100681 0.89521676 0
26.379314 -16.75919 0.38794991 25
24.390991 -16.735611 0.36928242 8
19.302002 -8.6103792 0.77333277 0
19.152128 -9.3762531 0.6946016 0
19.094067 -10.209515 0.60826695 0
19.118975 -11.122275 0.5088436 1
20.814796 -13.156745 0.275406 5
19.034176 -12.984749 0.3021318 5
19.413187 -8.658494 0.39912418 3
21.025738 -10.312675 0.17166649 4
19.535 -10.447698 0.19490227 5
18.008078 -10.456587 0.2283121 5
17.000257 -10.687412 0.22483243 4
15.862095 -10.763357 0.23612376 5
18.416605 -8.2005892 0.12735987 7
17.276011 -8.4296923 0.14709796 4
16.252419 -8.6469326 0.16378582 4
14.247991 -7.546988 0.10145288 8
12.622875 -6.6552644 0.064425327 7
11.434813 -6.0032144 0.017322699 7
10.392664 -5.4316306 0.025632344 6
9.5582867 -4.9734664 -0.033700787 8
8.8823442 -4.6024823 -0.061866023 8
8.2942247 -4.2796998 -0.084774464 8
7.8074441 -4.0124245 -0.11045676 7
5.8585572 -2.9430306 -0.16108605 8
37.488132 -20.584665 13.653473 13
37.365433 -20.489264 10.606763 25
37.372002 -20.47245 8.3448172 31
36.224113 -19.816101 5.9648023 4
32.007359 -17.468105 4.2020836 10
31.722979 -17.304922 3.5478024 11
31.663559 -18.784966 3.4626479 26
30.630068 -19.690424 3.3257065 41
30.342413 -21.08943 3.2299099 27
34.297028 -15.630486 3.1998572 26
34.01371 -17.004894 3.0925992 30
32.103817 -17.509735 2.9268479 19
31.620674 -18.752871 2.8160336 20
31.510918 -20.258423 2.712414 19
30.125898 -20.929247 2.5769634 36
34.82716 -15.870194 2.5505204 3
37.512341 -18.771837 2.4851136 39
32.499321 -17.722744 2.2926507 10
30.909916 -18.318977 2.1645632 2
36.393162 -23.435984 2.0888603 3
29.831041 -20.714066 1.9325075 30
37.576794 -17.134331 1.8838614 23
31.242039 -15.590008 1.7685267 79
37.295307 -20.369146 1.613492 31
29.514006 -17.473297 1.550071 7
37.624146 -24.230698 1.3117052 32
29.569359 -20.522432 1.3016477 26
31.770721 -14.449314 1.2703923 5
19.606445 -9.6937714 1.4225653 0
19.621937 -10.592477 1.3433863 1
26.950747 -15.926445 1.0302542 33
26.754875 -17.137878 0.91619474 31
26.171465 -18.120464 0.80988675 29
19.405481 -8.7402658 1.1341929 0
19.226957 -9.4985228 1.0592035 0
19.133221 -10.318913 0.97950429 0
19.09654 -11.200494 0.89162374 0
26.314419 -16.845066 0.3874737 26
24.212055 -16.733778 0.3759754 9
19.265026 -8.6726437 0.77330041 0
19.173189 -9.46838 0.69077635 0
19.090221 -10.29176 0.60562259 0
19.094177 -11.195445 0.50727892 0
20.705652 -13.186192 0.27969125 5
18.966352 -13.033291 0.30339107 5
19.318069 -8.6944046 0.40370488 0
20.940228 -10.359056 0.17522803 5
19.467442 -10.49673 0.19711015 5
17.917229 -10.484797 0.23287037 7
16.963301 -10.744954 0.22428623 3
15.782518 -10.787101 0.24005325 5
18.355745 -8.2480707 0.13007739 7
17.225599 -8.4774199 0.14883579 3
16.18075 -8.6787767 0.16784099 5
14.201126 -7.5834141 0.10373157 8
12.586121 -6.6898828 0.066136852 8
11.410769 -6.0394435 0.017595893 7
10.360254 -5.4585114 0.027911797 7
9.5447588 -5.0069618 -0.03467606 7
8.873538 -4.6355052 -0.063674457 9
8.2728319 -4.3031149 -0.083291508 10
7.7801909 -4.0304008 -0.10699611 7
5.8520203 -2.9635527 -0.16248727 8
37.514023 -20.768919 13.683524 14
37.389862 -20.671869 10.628434 8
37.387058 -20.649649 8.3589478 30
35.950199 -19.826416 5.940197 17
33.821705 -18.624983 4.3407135 24
31.697739 -17.433426 3.5487962 14
31.437695 -18.796341 3.453414 20
30.534904 -19.778048 3.3233984 32
29.571949 -20.697918 3.1967845 19
34.619526 -15.924145 3.2139914 26
33.381496 -16.828928 3.0706112 2
31.648415 -17.399937 2.9126067 14
31.945234 -19.097921 2.8270602 46
29.2017 -18.894764 2.6497428 4
29.81843 -20.865816 2.5702085 37
36.562782 -16.824541 2.5857606 53
37.464859 -18.910109 2.4844379 39
32.476151 -17.855852 2.2922552 6
30.976213 -18.503908 2.1649263 13
31.591795 -20.459206 2.0575113 2
29.899229 -20.916019 1.9318013 43
36.54549 -16.81102 1.8823266 6
31.536976 -15.875618 1.7666818 31
37.350216 -20.567635 1.6115962 33
29.501183 -17.603552 1.5486616 1
37.593292 -24.395309 1.3096751 34
26.635139 -18.59033 1.3556411 12
31.365248 -14.392951 1.2763319 4
19.94335 -9.9496307 1.4135958 0
19.997467 -10.888947 1.3317171 1
26.905708 -16.024929 1.029114 26
26.765532 -17.275541 0.91279429 30
26.056364 -18.172956 0.81109983 3
19.426041 -8.8298731 1.1317898 0
19.194138 -9.5638781 1.0587099 0
19.087065 -10.378097 0.9794659 0
19.18424 -11.341984 0.88446593 0
26.252579 -16.932882 0.38680315 24
24.004108 -16.710089 0.38450968 10
19.245951 -8.7431812 0.77221775 0
19.136913 -9.5317144 0.6905067 0
19.075563 -10.368272 0.60367942 0
22.057135 -13.078096 0.28836873 15
20.6099 -13.223795 0.28293326 5
18.846344 -13.044566 0.30903977 6
19.309759 -8.7701511 0.40157086 1
20.854641 -10.404961 0.17878883 4
19.371897 -10.529894 0.20176022 6
17.874151 -10.541408 0.23296914 5
16.892815 -10.780497 0.22704825 3
15.722468 -10.824252 0.24191633 5
18.269484 -8.2834635 0.13524227 6
17.157318 -8.5158472 0.15238617 4
16.133408 -8.7237816 0.16926925 5
14.161122 -7.6234674 0.10511956 7
12.542339 -6.7204666 0.068875 7
11.379689 -6.0717278 0.019033713 7
10.351936 -5.4986596 0.025710432 6
9.5207882 -5.0346851 -0.033496238 7
8.8611755 -4.666615 -0.064698942 8
8.2445374 -4.3226357 -0.080105692 9
7.7699218 -4.0576816 -0.10812048 7
5.8321109 -2.9766948 -0.15888931 8
37.475327 -20.917583 13.693178 15
37.638592 -20.981956 10.703662 6
37.380657 -20.815548 8.369421 33
35.822289 -19.917093 5.9323778 17
33.847385 -18.792274 4.3464899 27
31.609291 -17.526691 3.5463839 14
31.321215 -18.873087 3.4498096 32
34.820484 -22.76848 3.5348513 13
29.499979 -20.799406 3.1957293 21
34.531628 -16.02796 3.2118618 28
33.40118 -16.984032 3.0726159 2
31.807484 -17.63217 2.9191349 32
32.27457 -19.449629 2.8382652 21
29.029346 -18.924274 2.6458352 23
29.482498 -20.779541 2.5627537 7
36.269043 -16.839788 2.5801365 20
37.470181 -19.075762 2.4846551 36
32.361782 -17.93804 2.2906225 2
31.07571 -18.710382 2.1656168 33
31.657375 -20.658234 2.0573344 9
29.650858 -20.892864 1.9303042 31
36.468941 -16.928291 1.8814323 24
31.791166 -16.143318 1.7649283 18
37.526215 -20.83535 1.608862 37
36.686203 -22.131994 1.4699841 5
37.548389 -24.551168 1.3078309 34
31.28269 -14.485334 1.2761922 1
19.393431 -9.7519617 1.4248947 0
19.248604 -10.557351 1.3504022 0
26.873945 -16.131626 1.0275373 32
26.722189 -17.37818 0.91130817 32
20.374563 -14.24298 1.0409818 0
19.366598 -8.8823318 1.1324391 0
19.178846 -9.6382675 1.0574511 0
19.138277 -10.49189 0.97480488 0
26.767599 -16.061302 0.48601821 32
26.207092 -17.031492 0.38517311 22
20.693342 -14.466114 0.58801943 0
19.269989 -8.8340626 0.76861471 0
19.128824 -9.6095333 0.68845159 0
19.133703 -10.485861 0.59678757 1
22.100393 -13.207346 0.28123483 11
20.550743 -13.28511 0.28330109 5
18.749197 -13.071406 0.31276783 6
19.250572 -8.8222017 0.40334982 0
20.776072 -10.454045 0.18176201 5
19.318077 -10.585946 0.20274313 5
17.824074 -10.59369 0.23370175 6
16.802319 -10.802485 0.23179603 4
15.668819 -10.865746 0.24308817 5
18.222862 -8.3369761 0.13655728 6
17.127926 -8.5739422 0.15194286 3
16.078989 -8.7646618 0.17144565 6
14.114063 -7.6594424 0.10739515 8
12.519242 -6.7624655 0.068527736 7
11.358862 -6.1096716 0.018720087 7
10.326227 -5.52916 0.026706737 6
9.5001583 -5.0642233 -0.033037059 7
8.8350019 -4.6900263 -0.062582307 9
8.2366533 -4.3534651 -0.082032502 9
7.7459526 -4.0773311 -0.10557859 7
5.8188004 -2.9934382 -0.15779233 8
37.513062 -21.1101 13.727498 15
37.640499 -21.154564 10.720433 4
37.383865 -20.987511 8.3817081 33
36.151028 -20.266539 5.9772892 15
33.792469 -18.914656 4.3462968 9
30.759499 -17.187788 3.5026636 4
31.146757 -18.913601 3.4432182 18
29.07081 -19.10198 3.2565534 7
29.511946 -20.961456 3.19856 26
34.685383 -16.246204 3.2193522 37
33.320873 -17.087826 3.0709484 2
31.854025 -17.802603 2.9218771 44
32.44865 -19.709467 2.8447192 27
28.897055 -18.979445 2.6430333 20
29.543234 -20.976608 2.5649276 28
36.279156 -16.997213 2.5806391 7
37.286724 -19.143902 2.4816823 35
33.186703 -18.552244 2.3017108 9
31.351234 -19.026857 2.1680682 22
29.140028 -19.135124 2.0407505 4
29.730703 -21.104521 1.9296113 33
37.494286 -17.568125 1.8812056 42
31.412098 -16.084652 1.7650671 6
37.547684 -21.017763 1.6071489 35
33.27483 -20.204981 1.5048164 2
29.20108 -19.169361 1.4298823 12
20.156284 -14.19551 1.4768828 0
20.095095 -9.3111134 1.4865953 0
19.327787 -9.8013182 1.425123 0
19.229485 -10.632644 1.3493855 1
26.926895 -16.290695 1.0232688 31
26.671806 -17.476286 0.91005933 30
20.150036 -14.186099 1.047477 0
19.202274 -8.8848162 1.137123 0
19.173916 -9.7181873 1.0557326 0
19.098513 -10.554955 0.97442883 0
26.749268 -16.175938 0.48323461 27
26.194485 -17.152149 0.38163099 30
20.367661 -14.338063 0.60464758 2
19.232267 -8.8961353 0.76857251 0
19.155874 -9.7058115 0.68416554 0
19.090488 -10.546926 0.59671777 4
22.078415 -13.29731 0.27881697 7
20.431627 -13.306328 0.28837121 4
18.652098 -13.097725 0.3164981 7
19.285019 -8.9183607 0.39784938 0
20.700956 -10.50454 0.18444237 4
19.212042 -10.61228 0.20830968 5
17.773851 -10.645746 0.23443359 5
16.761644 -10.85712 0.23157606 3
15.618312 -10.909326 0.24391527 5
18.172493 -8.3885565 0.13822147 6
17.045305 -8.6044168 0.1569431 3
16.02795 -8.8072252 0.17324655 6
14.070389 -7.6971359 0.10922568 8
12.492555 -6.8024306 0.068693444 7
11.327577 -6.1416993 0.020155337 7
10.296996 -5.5576024 0.02834275 6
9.4828682 -5.0956106 -0.033297636 7
8.8121901 -4.7152367 -0.061251748 8
8.2184467 -4.3785248 -0.081404291 8
7.7321162 -4.1026006 -0.10578814 7
5.8186893 -3.0175815 -0.16169658 10
37.546562 -21.301216 13.760734 11
37.66544 -21.34108 10.742875 4
37.400051 -21.167614 8.3964138 32
35.849117 -20.258627 5.9494853 25
31.540508 -17.78018 4.1818604 7
30.776085 -17.337091 3.5059242 9
31.118355 -19.043797 3.4441795 83
28.957998 -19.170494 3.2533059 11
29.594261 -21.175543 3.2046669 24
34.985844 -16.536514 3.2327111 27
33.26857 -17.206123 3.070323 13
32.475945 -18.302998 2.9441488 10
32.108372 -19.652216 2.8353198 25
28.847689 -19.089718 2.6425228 16
29.774414 -21.298948 2.5712559 27
35.880997 -16.95974 2.572912 3
37.191807 -19.257423 2.4802091 35
32.240177 -18.162191 2.2888126 4
32.331757 -19.784288 2.177567 6
28.97394 -19.168102 2.0391436 21
29.786776 -21.300531 1.9288486 34
37.523396 -17.740383 1.8803397 38
31.331421 -16.179516 1.7643081 3
37.557907 -21.194624 1.6054953 34
33.204567 -20.319305 1.5037798 2
29.01827 -19.191389 1.4306459 8
19.929075 -14.134844 1.479629 0
19.893362 -9.2983789 1.4893334 0
19.318705 -9.8800287 1.4240429 0
19.206598 -10.705946 1.3484594 0
26.870329 -16.382872 1.0224333 33
26.670839 -17.607695 0.90699762 26
19.997326 -14.179491 1.0510383 0
19.08144 -8.9069633 1.1401399 53
19.200523 -9.8148813 1.0526384 0
19.093243 -10.637682 0.97239834 0
26.706684 -16.275894 0.48169205 29
26.178032 -17.270691 0.37827256 28
20.03989 -14.205572 0.62149721 1
19.208755 -8.9649401 0.76768833 0
19.143559 -9.782011 0.68232489 0
19.092155 -10.633547 0.59358269 10
21.988211 -13.345203 0.28136837 11
20.309292 -13.324649 0.29370442 5
18.551807 -13.121181 0.32050407 6
19.26502 -8.9890509 0.3965435 0
20.593929 -10.537989 0.18975966 4
19.043699 -10.602423 0.21938038 3
17.689587 -10.676575 0.23835257 6
16.644659 -10.860505 0.23897679 4
15.548326 -10.938643 0.24680997 5
18.114788 -8.4364452 0.14058393 6
16.98385 -8.6454954 0.15976484 4
15.990642 -8.8574314 0.17354402 6
14.033524 -7.738553 0.1101647 8
12.451949 -6.8344302 0.070914149 7
11.292763 -6.1716218 0.0221729 7
10.28141 -5.5937233 0.02741657 7
9.4586296 -5.1230421 -0.03212123 7
8.7927132 -4.7422833 -0.060708094 8
8.21035 -4.4093065 -0.083333559 8
7.7215753 -4.1297441 -0.10691609 7
5.7986507 -3.030499 -0.15810023 10
37.62587 -21.519859 13.808973 9
37.414886 -21.369202 10.699583 9
37.384609 -21.330278 8.4056444 32
35.720058 -20.34833 5.9416537 14
31.457973 -17.876629 4.1793904 30
31.027376 -17.622431 3.5219877 19
30.920061 -19.067993 3.4363592 11
28.864906 -19.251904 3.25103 13
29.872162 -21.534513 3.2198648 30
35.029148 -16.705618 3.2358632 31
33.19817 -17.314909 3.0690386 17
32.675594 -18.566359 2.9521439 7
30.863886 -19.026419 2.797965 21
28.867418 -19.246981 2.6439292 12
29.716492 -21.412916 2.5705669 28
35.742817 -17.044956 2.5704274 21
37.146038 -19.396687 2.4795692 37
32.131996 -18.246998 2.2872665 2
31.45933 -19.392557 2.1685181 31
28.867579 -19.24053 2.0379148 247
29.212362 -21.036566 1.9265847 23
37.497723 -17.886961 1.8794332 39
31.013527 -16.148771 1.7642781 51
37.577751 -21.377798 1.6037596 35
32.370888 -19.95616 1.511053 27
28.878706 -19.241522 1.4307643 10
19.728355 -14.091653 1.4818799 0
19.688358 -9.2826099 1.4921457 0
19.330521 -9.9700031 1.4224678 0
19.190357 -10.783202 1.34734 0
26.90498 -16.532084 1.0186846 29
26.583189 -17.68103 0.90706468 23
19.841677 -14.169629 1.0547379 0
19.180735 -9.8876038 1.05152 0
26.640001 -16.360922 0.48139271 24
26.151138 -17.382608 0.37548047 28
19.913239 -14.21713 0.62568426 1
19.238956 -9.0597258 0.76365238 0
19.145065 -9.8657007 0.67958832 0
19.11421 -10.732254 0.58902836 8
21.901321 -13.394744 0.28367031 7
20.213522 -13.360169 0.29694769 4
18.458019 -13.148802 0.32396138 6
19.266321 -9.0701056 0.39355314 0
20.515137 -10.585713 0.19273189 4
18.941339 -10.629303 0.22464511 3
17.649282 -10.734403 0.23812471 5
16.587288 -10.903399 0.2404125 3
15.491195 -10.977007 0.24832474 5
18.053375 -8.4823027 0.14329524 7
16.929356 -8.6899672 0.16185933 3
15.942815 -8.9015245 0.17496634 6
13.989642 -7.7758417 0.11199267 8
12.421585 -6.8721561 0.071591116 8
11.264734 -6.2053151 0.023022493 7
10.258843 -5.6258674 0.027769456 6
9.4411335 -5.1542821 -0.032384463 7
8.7731485 -4.769248 -0.060165621 8
8.1885719 -4.4323025 -0.081855498 8
7.7008018 -4.1510515 -0.10529339 7
5.7917762 -3.0508618 -0.1595059 10
37.584293 -21.669374 13.818589 9
37.665398 -21.687782 10.776366 3
37.392403 -21.507023 8.4191151 30
31.64839 -18.143644 5.4763708 2
31.143944 -17.838293 4.159574 22
30.883236 -17.680836 3.5165606 21
31.245823 -19.421556 3.4557266 42
28.827703 -19.371218 3.2515075 9
29.832664 -21.663139 3.2204123 23
34.324337 -16.510817 3.2091916 38
32.002167 -16.823198 3.0260897 2
32.621422 -18.684694 2.95154 15
30.902596 -19.198526 2.8002341 14
28.820341 -19.359514 2.6434963 8
29.294409 -21.25853 2.5610094 40
35.791416 -17.220531 2.5717151 7
35.635143 -18.754887 2.454123 12
32.915936 -18.849564 2.2977943 21
31.354696 -19.477116 2.1671529 26
29.129562 -21.129608 1.9254942 49
31.933905 -15.33527 1.8755525 5
37.127529 -19.544252 1.7441626 38
37.569088 -21.545294 1.6022037 34
33.326775 -20.713572 1.4987999 3
28.825048 -19.349527 1.4295833 12
19.653746 -14.139764 1.4816712 0
19.53404 -9.290041 1.4940004 0
30.198172 -15.845251 1.1690246 0
19.232599 -10.894603 1.3446054 0
26.928761 -16.675337 1.0152495 37
26.604347 -17.828312 0.90314388 25
19.67024 -14.146996 1.0591127 0
20.504065 -9.759366 1.0816317 1
19.150085 -9.9546671 1.0508556 0
19.043623 -10.781339 0.97014207 0
26.623762 -16.477623 0.47841319 27
26.070957 -17.458532 0.3757416 25
19.748146 -14.199553 0.63232958 0
19.211256 -9.1268511 0.76297015 0
19.167364 -9.9607792 0.67550826 0
19.05636 -10.785157 0.58989072 14
21.726511 -13.388529 0.29244354 8
20.061676 -13.356965 0.3046388 5
18.377113 -13.185388 0.32631931 5
19.256521 -9.146039 0.391399 0
20.404564 -10.616141 0.19834292 4
18.887323 -10.683604 0.22562768 4
17.561541 -10.76234 0.24236198 5
16.500166 -10.925821 0.24483193 4
15.443605 -11.022186 0.24880321 5
18.006191 -8.5348034 0.14460436 5
16.871237 -8.7322893 0.16431583 3
15.898314 -8.9473858 0.1760114 6
13.952544 -7.8169017 0.11292884 7
12.391104 -6.9097505 0.072266586 8
11.229754 -6.2349191 0.025038017 7
10.236171 -5.6579189 0.028120959 7
9.4167185 -5.1815166 -0.031210296 7
8.7534971 -4.7961311 -0.059624217 8
8.1701117 -4.4571543 -0.081230573 8
7.686708 -4.176158 -0.10550632 7
5.7815328 -3.0693111 -0.15966207 9
37.565376 -21.832542 13.835704 9
37.701389 -21.883352 10.802019 2
37.378956 -21.672068 8.4289322 32
36.250984 -20.988867 6.0177689 12
30.951096 -17.868626 4.1488233 11
30.980377 -17.879839 3.5243077 18
30.793875 -19.28446 3.434751 29
28.859156 -19.538078 3.2553802 7
30.238604 -22.123129 3.2416718 20
34.672283 -16.828293 3.2245171 26
33.084461 -17.54678 3.0674996 12
31.18335 -17.992561 2.9038506 12
33.542305 -21.024921 2.8830831 9
28.822245 -19.505943 2.6444273 5
29.207655 -21.34947 2.5596175 28
34.130917 -16.556578 2.538491 5
35.566402 -18.875603 2.4530921 8
32.915981 -19.001078 2.2977114 7
31.364632 -19.634111 2.16693 50
28.835667 -19.508505 2.0365889 7
29.341919 -21.441711 1.925079 27
31.403214 -15.210259 1.8745092 5
32.084766 -16.997862 1.7588611 18
37.566616 -21.71703 1.60059 30
33.24123 -20.819492 1.4978878 2
28.797346 -19.47551 1.4279957 9
19.492329 -14.12316 1.4831731 0
19.487589 -9.3494253 1.4937922 0
19.2367 -10.088078 1.4220065 0
19.215616 -10.972092 1.3434759 2
26.992369 -16.844675 1.0105094 26
26.565483 -17.935192 0.90138918 22
19.537722 -14.151924 1.0618834 0
20.226343 -9.7093067 1.0906093 2
19.112152 -10.017851 1.0504934 0
19.040825 -10.866212 0.96793276 0
26.603653 -16.592268 0.47560546 30
26.013611 -17.549942 0.37466061 27
19.644375 -14.226212 0.63509017 1
19.197659 -9.2009354 0.76144445 0
19.111818 -10.01456 0.67633194 0
19.098331 -10.896237 0.58391035 8
21.616055 -13.421897 0.29648998 9
19.95945 -13.386756 0.30840805 5
18.26091 -13.195422 0.33170351 7
19.282236 -9.2395945 0.38643742 0
20.29051 -10.644039 0.20424825 5
18.857252 -10.751744 0.22446606 5
17.517586 -10.817557 0.24244981 5
16.436089 -10.963558 0.24692982 3
15.399087 -11.069538 0.24893485 5
17.944544 -8.5800514 0.14731289 5
16.809515 -8.7724266 0.1671347 3
15.829614 -8.9789791 0.17968599 6
13.90846 -7.8537846 0.11475433 7
12.353654 -6.9432125 0.073969506 7
11.215202 -6.2763214 0.023550371 7
10.213394 -5.689878 0.028471114 6
9.4024172 -5.2145896 -0.032195702 8
8.7269821 -4.8189802 -0.057511367 7
8.1481943 -4.47996 -0.079754218 7
7.6658001 -4.1972928 -0.10388533 7
5.7712255 -3.0877233 -0.1598191 9
37.641876 -22.052855 13.883901 9
37.746567 -22.085423 10.83009 2
37.395416 -21.8554 8.4441996 30
32.052937 -18.675077 5.536335 2
31.37356 -18.261265 4.1843696 30
31.327633 -18.22806 3.5457695 56
30.918619 -19.513111 3.4437461 23
30.440109 -20.78018 3.3356435 20
30.097654 -22.179026 3.2375681 28
34.760593 -17.020449 3.229507 15
33.01292 -17.65481 3.0661981 13
31.117365 -18.097631 2.9028053 4
31.839485 -20.096365 2.8314657 15
30.259798 -20.648039 2.6851985 32
29.168633 -21.475996 2.559392 28
34.044704 -16.659739 2.5370469 23
37.1427 -19.888288 2.4799278 38
32.154118 -18.703524 2.2873182 27
31.78479 -20.054552 2.1707907 23
29.889053 -20.384121 2.0426021 25
28.806101 -21.197325 1.922943 47
31.676477 -15.479822 1.8738731 4
37.117706 -19.868196 1.7417253 38
37.563381 -21.889006 1.5989629 34
33.263134 -20.99407 1.4957756 1
28.78883 -19.615196 1.426097 12
19.398514 -14.155895 1.4833447 0
19.419445 -9.3979387 1.493994 0
19.293232 -10.20301 1.4193496 0
19.225864 -11.065845 1.3415807 1
26.91028 -16.921986 1.0104017 30
26.440708 -17.982845 0.90277255 26
19.424608 -14.170459 1.06385 0
19.204195 -9.2881899 1.1286303 0
19.182945 -10.139907 1.0453912 0
19.068632 -10.969464 0.96422666 0
26.505629 -16.657444 0.47689825 25
25.939499 -17.629793 0.37453046 24
19.483036 -14.209278 0.64153779 0
19.169445 -9.2679396 0.76075417 0
19.150936 -10.11942 0.67112404 0
19.029663 -10.942856 0.58547276 19
21.529156 -13.469712 0.29879144 8
19.821135 -13.391012 0.31505677 5
18.170424 -13.223908 0.33488655 6
19.282488 -9.3210421 0.38343143 0
20.183508 -10.675067 0.20956616 4
18.799431 -10.803605 0.22574872 6
17.476801 -10.874744 0.24221459 4
16.342424 -10.980573 0.2520127 4
15.335249 -11.102407 0.25113526 5
17.889927 -8.6285086 0.14931811 7
16.751202 -8.8141317 0.16958791 3
15.784887 -9.0243473 0.18072729 6
13.847144 -7.8803673 0.11880539 8
12.32636 -6.9825311 0.074126653 7
11.176609 -6.303648 0.026146406 7
10.183696 -5.7177401 0.030100554 6
9.3811998 -5.2436333 -0.031744238 8
8.7240648 -4.8556137 -0.060904689 8
8.139678 -4.5105839 -0.081689566 8
7.6481771 -4.2203021 -0.10318331 7
5.7641206 -3.1080198 -0.16122812 9
37.585007 -22.194862 13.8892 7
37.444408 -22.08124 10.774618 3
37.400871 -22.033031 8.4576378 32
31.933319 -18.752737 5.5289931 5
31.364967 -18.401768 4.1875677 23
31.545809 -18.503294 3.5602479 10
30.87093 -19.632311 3.4437983 23
30.374411 -20.889267 3.334909 21
29.666243 -22.015221 3.2199249 21
34.808674 -17.193737 3.2329128 29
32.993652 -17.791327 3.066849 30
32.222664 -18.899727 2.9417222 43
31.742735 -20.188391 2.8296034 35
30.499496 -20.969372 2.6927996 29
29.630508 -21.980415 2.5714176 14
37.638386 -18.604267 2.6099932 3
37.157745 -20.062202 2.4803267 37
31.683487 -18.572668 2.2808704 26
31.419298 -19.972862 2.1668203 29
29.854265 -20.511831 2.0417891 31
28.895334 -21.418819 1.9222324 45
31.290024 -15.422169 1.8729141 41
37.14336 -20.047735 1.740392 37
29.604168 -17.329998 1.6533926 3
33.331287 -21.199402 1.4931312 1
28.815777 -19.780233 1.4236383 3
19.269573 -14.161677 1.4842185 1
19.44063 -9.4908094 1.4924694 0
19.356216 -10.322288 1.4165217 0
19.266632 -11.178191 1.3388257 0
26.891834 -17.040094 1.0082382 28
26.388075 -18.080164 0.90149373 29
19.298834 -14.178756 1.0663577 0
20.133938 -9.8343401 1.090572 2
19.158411 -10.21084 1.0444088 0
19.023808 -11.030158 0.96399456 0
26.47801 -16.767599 0.47443739 31
25.861876 -17.70705 0.37459081 30
19.392282 -14.244239 0.64348263 1
19.162439 -9.3455696 0.75880045 0
19.119453 -10.186391 0.67037791 0
19.07419 -11.056429 0.57924408 2
21.418701 -13.501943 0.30283868 6
19.725611 -13.424135 0.31830499 5
18.108665 -13.273514 0.3355934 7
19.318104 -9.420434 0.37761712 0
20.143074 -10.74179 0.20930818 3
18.731197 -10.84908 0.22794999 6
17.388906 -10.901546 0.24645056 5
16.301178 -11.033525 0.25178617 3
15.268191 -11.132565 0.25368208 6
17.83876 -8.6784668 0.15097269 5
16.675325 -8.845994 0.17385927 3
15.740045 -9.0695095 0.18176825 6
13.813164 -7.9228468 0.11929224 8
12.30577 -7.0257888 0.073253706 8
11.141369 -6.3327966 0.028158715 7
10.164122 -5.751503 0.029807447 6
9.3632832 -5.2745957 -0.03201298 8
8.7108812 -4.8862839 -0.061939947 9
8.120966 -4.5352254 -0.081067905 8
7.6438923 -4.2511711 -0.10615256 7
5.7504077 -3.1244345 -0.16013609 9
37.573807 -22.364588 13.909501 7
37.652851 -22.382231 10.842408 2
37.412315 -22.21504 8.4722786 12
31.810137 -18.827736 5.5212512 18
30.962194 -18.306181 4.1610379 37
31.38899 -18.556179 3.5542243 7
30.725643 -19.688211 3.438771 27
30.419451 -21.076347 3.3396652 24
29.500553 -22.049328 3.2146459 18
33.849705 -16.859419 3.1959915 2
32.102119 -17.447193 3.0350721 5
32.047245 -18.944633 2.9370043 30
31.75634 -20.351933 2.8311763 9
30.197626 -20.913006 2.6853652 27
29.012569 -21.670965 2.5570538 32
34.24625 -17.054094 2.5417333 2
37.200039 -20.251905 2.4811895 34
31.594915 -18.66708 2.2795916 25
31.990343 -20.497187 2.1721694 8
29.714239 -20.56592 2.0403185 29
28.804932 -21.505779 1.9211118 30
31.789968 -15.808941 1.8723533 25
37.19273 -20.241205 1.7389675 38
29.591988 -17.460323 1.6521615 7
33.274323 -21.32481 1.4918599 3
29.679586 -20.534512 1.4082491 47
19.172686 -14.190901 1.4844577 0
19.414976 -9.5605211 1.4918382 0
19.366056 -10.41318 1.4149193 0
27.168669 -16.002253 1.1179072 28
26.839357 -17.136492 1.0071507 34
26.328537 -18.172733 0.90045261 31
19.154121 -14.171851 1.0696756 0
19.614513 -9.6580286 1.1090709 2
19.109098 -10.268225 1.0444936 0
19.078213 -11.150233 0.95895201 0
26.399673 -16.845112 0.47465375 25
25.790564 -17.788572 0.37426499 23
19.285601 -14.266671 0.64645326 1
19.147987 -9.4196653 0.75726318 0
19.06674 -10.241705 0.67096937 0
19.066763 -11.139669 0.5765506 0
21.32502 -13.544436 0.30563992 7
19.659487 -13.477396 0.3191947 4
18.021332 -13.303564 0.33850259 6
19.306932 -9.4968386 0.37544411 0
20.008051 -10.756422 0.21697684 4
18.621805 -10.869625 0.23382638 5
17.334478 -10.949574 0.24749154 5
16.243443 -11.07487 0.25321797 3
15.223338 -11.179235 0.2538096 6
17.78034 -8.7245836 0.15332676 6
16.651773 -8.9062347 0.17267536 3
15.674568 -9.1021948 0.18506463 6
13.761993 -7.954978 0.12200616 8
12.268 -7.058805 0.07495261 8
11.11285 -6.3658352 0.029002154 7
10.127482 -5.7750673 0.032717336 6
9.3418818 -5.3034763 -0.031563316 7
8.6841145 -4.9088731 -0.059830327 8
8.1021729 -4.5597873 -0.080447286 8
7.6294494 -4.2760725 -0.10637008 8
5.7366443 -3.1407886 -0.15904467 9
37.55529 -22.5305 13.927648 5
37.715633 -22.597588 10.875312 2
37.365456 -22.362558 8.4765959 25
31.680006 -18.89798 5.5127106 21
31.134224 -18.555141 4.1779222 30
30.897133 -18.405546 3.5297985 2
30.493444 -19.686365 3.4291987 18
30.32008 -21.162291 3.337301 36
29.18894 -21.970829 3.2025344 21
34.76709 -17.472986 3.2342622 51
37.205711 -20.429022 3.2264612 1
29.779057 -20.771551 2.6746721 36
28.860973 -21.712149 2.5540886 23
37.472885 -18.845102 2.6073308 40
32.508141 -17.811106 2.4017971 10
30.90361 -18.396961 2.2701633 3
31.551043 -20.365927 2.1674659 6
29.747185 -20.741823 2.0399191 30
28.514061 -21.439323 1.9195535 23
31.467701 -15.782026 1.8714223 18
37.241196 -20.435261 1.7375305 35
29.579252 -17.590773 1.6509229 1
37.586788 -24.312181 1.4414541 37
29.572292 -20.610851 1.4077613 32
19.094891 -14.23419 1.4843143 0
19.378374 -9.6247244 1.4914112 0
19.330044 -10.479017 1.4143821 0
27.061762 -16.064255 1.118515 28
26.890232 -17.300625 1.0026983 28
26.154455 -18.184252 0.90365446 33
19.04781 -14.193229 1.0713818 0
19.474243 -9.6703463 1.1127658 1
19.070099 -10.331208 1.044117 0
26.894825 -15.958104 0.57747996 19
26.334486 -16.931032 0.47415125 27
25.696159 -17.853651 0.37527844 32
19.175816 -14.286105 0.64963049 2
19.161728 -9.508255 0.75403839 0
19.055767 -10.320033 0.66887605 0
19.096586 -11.245688 0.57125276 0
21.237978 -13.590807 0.30794197 7
19.544352 -13.49578 0.32401595 5
17.937176 -13.335587 0.34113657 7
19.309685 -9.5805082 0.37214413 1
19.922003 -10.797342 0.22053497 4
18.536396 -10.903961 0.23755914 7
17.276583 -10.99517 0.24885066 4
16.18561 -11.115943 0.25464863 4
15.143491 -11.19913 0.25773802 6
17.718258 -8.7685919 0.15603036 5
16.593168 -8.947093 0.17512627 3
15.629511 -9.1468735 0.18610303 6
13.720974 -7.9930038 0.12338187 8
12.233541 -7.0936885 0.076135598 7
11.091007 -6.4028335 0.028676048 7
10.104326 -5.8065934 0.03306267 6
9.3136454 -5.3282089 -0.029674996 7
8.6673708 -4.9374018 -0.060081508 8
8.0833025 -4.584271 -0.079827689 8
7.5949039 -4.2888799 -0.10108113 6
5.726088 -3.1590376 -0.15920497 8
37.631378 -22.754913 13.976868 9
37.331516 -22.518265 8.4833326 34
31.512394 -18.944735 5.4997845 20
30.800505 -18.497948 4.1565709 6
31.484793 -18.908905 3.5647004 22
30.418343 -19.786663 3.427844 4
29.446383 -20.694983 3.2965193 9
29.13154 -22.085596 3.2023127 23
34.553463 -17.514053 3.2272155 14
31.509693 -17.403681 3.0157151 1
30.662109 -18.40102 2.8921587 4
29.118586 -18.921576 2.7513196 22
29.73613 -20.894629 2.6744328 23
28.937559 -21.92824 2.5567186 28
37.489166 -19.016153 2.6080086 38
31.643764 -17.473068 2.3872705 4
32.335796 -19.414478 2.2894449 5
31.510271 -20.494089 2.1667242 21
29.759722 -20.904263 2.0393867 38
28.449026 -21.544359 1.9184884 22
31.13533 -15.74757 1.8704964 27
37.337608 -20.657269 1.7359182 29
36.876808 -22.173571 1.5971497 66
37.575611 -24.489985 1.4393824 34
29.536448 -20.737787 1.4061557 30
19.020191 -14.279545 1.4841059 69
19.377136 -9.7070475 1.4902879 0
19.297291 -10.546682 1.4137595 0
26.900097 -16.092436 1.120648 27
26.766726 -17.350819 1.0038767 32
25.908995 -18.143702 0.90953255 24
18.979597 -14.243289 1.0714722 7
19.255875 -9.6416521 1.1195426 0
19.111101 -10.438953 1.0402149 0
26.856485 -16.060526 0.57583123 31
26.275684 -17.021099 0.47328687 27
25.676437 -17.971632 0.37187603 21
19.094625 -14.326863 0.6509611 2
19.135981 -9.5769978 0.75312418 0
19.082811 -10.419862 0.66431803 0
19.1873 -11.389403 0.56169218 0
21.114206 -13.612564 0.31298894 6
19.471575 -13.543636 0.32542881 4
17.868828 -13.379342 0.34239194 6
19.308531 -9.6624889 0.36912009 1
19.849831 -10.845581 0.22291715 4
18.474819 -10.952335 0.23914595 6
17.211916 -11.036102 0.25084794 6
16.127682 -11.156744 0.25607815 4
15.079483 -11.230745 0.25993812 5
17.666716 -8.8177223 0.15768042 6
16.54838 -8.9954262 0.17612076 3
15.570716 -9.1830711 0.18864542 7
13.679851 -8.030838 0.12475627 8
12.205763 -7.132534 0.076287329 7
11.058889 -6.4335904 0.030100895 6
10.081066 -5.8380246 0.033406626 6
9.2887077 -5.3548479 -0.02850746 7
8.6438217 -4.9618006 -0.05876039 8
8.0610123 -4.6066484 -0.078356117 8
7.5836596 -4.3156261 -0.10221833 7
5.7219687 -3.1811829 -0.16186833 7
37.686676 -22.967989 14.019642 7
37.57127 -22.866024 10.876228 1
37.125225 -22.568287 8.459137 27
31.897448 -19.33041 5.551805 21
31.395952 -19.009243 4.2056956 10
31.374809 -18.989889 3.5612926 30
29.082129 -19.047432 3.3603098 7
29.500963 -20.887047 3.3017578 13
29.051582 -22.183069 3.2010465 20
34.989471 -17.890419 3.2462826 38
31.81814 -17.720444 3.0285876 22
30.86731 -18.671604 2.9004405 21
28.956287 -18.957212 2.7473421 24
29.462196 -20.851887 2.6677535 39
28.981382 -22.120611 2.5585563 32
37.366207 -19.115797 2.6058712 32
33.202248 -18.496645 2.4138336 8
31.201429 -18.870512 2.2740295 28
31.672131 -20.757347 2.1679893 7
29.998825 -21.230482 2.0402417 37
28.652273 -21.857563 1.9179831 29
37.388916 -19.121315 1.8719409 32
37.499088 -20.91757 1.7340673 41
36.639431 -22.202103 1.5971709 8
29.260334 -19.146496 1.5316395 6
26.32037 -18.57954 1.4542942 7
18.986494 -14.356405 1.483063 255
19.372002 -9.7876387 1.4892294 0
19.25733 -10.610309 1.4132987 1
26.939655 -16.243069 1.117149 31
26.753078 -17.473406 1.0014706 31
20.436375 -14.345886 1.1111779 0
18.920742 -14.30039 1.0711565 0
19.197702 -9.694232 1.1200234 0
19.134172 -10.53728 1.0370717 0
26.804129 -16.154514 0.57484168 29
26.23654 -17.124228 0.47134298 28
25.565331 -18.024429 0.37384352 5
18.991272 -14.350102 0.65372968 3
19.145458 -9.6640291 0.7501002 0
19.105906 -10.518039 0.6599772 1
23.171453 -13.921686 0.28153133 9
21.043739 -13.668963 0.31404248 7
19.385729 -13.581835 0.32789034 5
17.778303 -13.405677 0.3455773 6
19.30349 -9.7427425 0.36637226 1
19.69417 -10.846407 0.232354 2
18.385925 -10.983738 0.24318476 7
17.163776 -11.087745 0.25124487 4
16.063187 -11.192627 0.25817165 3
15.01228 -11.259607 0.26248381 8
17.618582 -8.8684282 0.15897799 6
16.482632 -9.0318136 0.17929734 3
15.518643 -9.2231283 0.19043405 7
13.642015 -8.0705557 0.12568332 8
12.181238 -7.1733398 0.075922273 7
11.030062 -6.4662657 0.030940415 6
10.06444 -5.8734841 0.032466821 6
9.2737608 -5.3875341 -0.029501384 7
8.6202021 -4.9860926 -0.057440128 8
8.0453272 -4.6330004 -0.078591481 8
7.5723143 -4.3423424 -0.10335687 7
5.7047844 -3.1954203 -0.15952802 6
37.652573 -23.126776 14.033465 3
37.451771 -22.970963 10.865329 8
37.097088 -22.727625 8.4670715 27
32.043365 -19.572222 5.5759068 10
30.898905 -18.850185 4.1719532 6
30.371202 -18.517105 3.5085773 0
28.962822 -19.111595 3.3565445 11
29.499533 -21.039873 3.3042407 29
28.980734 -22.287638 3.2002184 41
34.976868 -18.036734 3.247349 27
32.041378 -17.992065 3.0383158 34
31.461941 -19.185852 2.9221146 16
28.837255 -19.020893 2.7447133 18
29.515987 -21.044445 2.6702213 28
28.66811 -22.035299 2.5516267 20
37.204006 -19.194443 2.6029387 36
33.148361 -18.616695 2.4130552 9
31.156231 -18.990261 2.2733359 31
29.044872 -19.153566 2.1416271 7
30.01894 -21.401421 2.039737 27
26.136402 -20.0499 1.9118251 2
31.337557 -16.124121 1.8689592 4
37.502769 -21.090176 1.7327267 37
36.443108 -22.254498 1.596897 9
29.050894 -19.151072 1.532293 7
20.330317 -14.37964 1.5465131 0
19.384249 -9.8775644 1.4878175 1
19.237999 -10.685655 1.412338 0
26.944464 -16.373137 1.1145939 30
26.758818 -17.609457 0.99840295 27
20.247351 -14.31462 1.1156816 2
18.902672 -14.389229 1.0690818 0
19.213804 -9.7853632 1.117558 0
19.066454 -10.584494 1.0379083 0
26.77182 -16.260937 0.57284856 28
26.233503 -17.251745 0.46741918 34
20.070961 -14.182031 0.69537091 13
18.947811 -14.419483 0.65259141 4
19.147463 -9.7475424 0.74749118 0
19.093817 -10.596752 0.65786737 4
23.123163 -14.000723 0.28081653 7
20.946579 -13.70727 0.31709135 6
19.303072 -13.621937 0.33008769 5
17.675211 -13.421725 0.34986609 6
19.291033 -9.8193846 0.36418065 1
19.136488 -10.61752 0.27590805 2
18.310593 -11.023036 0.24599561 5
17.088961 -11.121445 0.2541987 4
15.995388 -11.225856 0.26059586 4
14.932476 -11.278334 0.26641259 6
17.570292 -8.9189014 0.16027261 5
16.43413 -9.0776911 0.18065184 3
15.459689 -9.2587461 0.19297379 6
13.590522 -8.1017523 0.12839274 8
12.146436 -7.2078094 0.077100165 7
11.004492 -6.5008922 0.031193443 7
10.037592 -5.9026775 0.033448648 6
9.2553339 -5.4181142 -0.029777279 7
8.5931644 -5.0082202 -0.055334277 8
8.0328674 -4.661346 -0.079681709 9
7.5509148 -4.3629045 -0.10174252 6
5.6907921 -3.2115638 -0.15843983 6
37.758232 -23.373611 14.093357 4
37.630825 -23.26239 10.92736 4
37.115227 -22.916384 8.4834843 36
31.951696 -19.667673 5.5721169 9
30.867249 -18.977482 4.1735668 19
30.764458 -18.906965 3.5329218 25
28.889782 -19.20648 3.3552217 10
29.342455 -21.079817 3.2989852 5
29.204735 -22.624416 3.2133067 21
35.65678 -18.548512 3.2763374 25
32.339371 -18.309269 3.050878 19
30.821945 -18.936256 2.9014337 37
28.880493 -19.193651 2.7471635 12
29.714157 -21.343718 2.6767445 13
28.478354 -22.044531 2.5477285 32
37.186779 -19.348623 2.6029484 37
32.140251 -18.188854 2.3960872 0
31.541599 -19.378721 2.2784619 24
28.905378 -19.203905 2.1399295 186
29.37257 -21.087111 2.0351584 11
26.230194 -20.267935 1.911144 1
31.5222 -16.358479 1.8681977 12
37.516117 -21.26903 1.7313423 35
32.404503 -19.910337 1.6247774 19
28.914717 -19.203655 1.5321163 10
20.086567 -14.30741 1.548847 0
19.350105 -9.9434662 1.4873064 0
19.256533 -10.782887 1.4104639 0
26.918152 -16.484398 1.1128939 23
